# .PCD v.5 - Point Cloud Data file format
VERSION .5
FIELDS x y z
SIZE 4 4 4
TYPE F F F
COUNT 1 1 1
WIDTH 3534
HEIGHT 1
POINTS 3534
DATA ascii
-33 390 -234
-33 400 -234
-33 401 -235
-34 409 -241
-34 410 -243
-33 412 -235
-33 413 -237
-34 421 -243
-34 422 -244
-33 423 -237
-34 424 -238
-34 434 -238
-34 435 -240
-34 447 -240
-34 448 -241
-35 452 -246
-34 461 -241
-34 462 -243
-34 477 -243
-34 478 -244
-35 479 -247
-35 488 -246
-35 489 -246
-36 206 -221
-36 207 -221
-36 213 -222
-37 222 -224
-37 233 -224
-37 234 -225
-36 238 -219
-36 239 -221
-37 245 -225
-37 246 -227
-37 253 -227
-37 254 -228
-36 268 -221
-36 269 -222
-36 270 -222
-37 271 -224
-37 272 -228
-38 273 -230
-37 279 -224
-37 280 -225
-38 281 -231
-38 287 -231
-38 288 -233
-38 294 -233
-38 295 -234
-38 302 -234
-39 303 -236
-39 312 -236
-39 313 -237
-39 323 -237
-39 324 -239
-37 335 -225
-37 336 -227
-37 346 -227
-37 347 -228
-37 359 -228
-38 360 -230
-39 366 -239
-39 367 -240
-38 382 -230
-38 383 -231
-38 384 -231
-38 385 -233
-38 389 -233
-39 390 -236
-40 391 -242
-38 415 -234
-39 416 -236
-40 424 -242
-40 425 -243
-39 428 -236
-39 429 -237
-39 436 -237
-39 437 -239
-39 451 -239
-39 452 -240
-40 453 -245
-39 465 -240
-40 466 -242
-40 481 -242
-40 482 -243
-40 483 -246
-40 491 -245
-40 492 -245
-41 208 -221
-41 209 -221
-41 216 -222
-42 223 -224
-42 233 -224
-42 234 -225
-41 238 -219
-41 239 -221
-42 244 -225
-42 245 -226
-42 256 -226
-43 257 -227
-41 267 -221
-41 268 -222
-41 271 -222
-42 272 -224
-43 273 -227
-43 274 -229
-43 282 -229
-43 283 -230
-43 292 -230
-42 293 -225
-42 294 -225
-43 296 -232
-44 297 -233
-44 302 -233
-44 303 -235
-44 316 -235
-44 317 -236
-44 318 -236
-45 319 -238
-42 339 -225
-42 340 -226
-45 348 -238
-44 349 -236
-42 356 -226
-43 357 -227
-43 358 -227
-43 359 -229
-44 363 -236
-45 364 -238
-45 375 -238
-45 376 -239
-43 383 -229
-43 384 -230
-43 400 -230
-43 401 -232
-43 415 -232
-44 416 -233
-44 417 -233
-44 418 -235
-45 422 -239
-45 423 -241
-44 431 -235
-44 432 -236
-45 433 -241
-45 434 -242
-44 440 -236
-45 441 -238
-45 453 -238
-45 454 -239
-46 458 -244
-45 466 -239
-45 467 -241
-45 484 -241
-45 485 -242
-46 486 -245
-46 494 -244
-46 495 -244
-46 210 -220
-46 211 -220
-46 214 -221
-47 228 -223
-47 239 -223
-47 240 -224
-46 242 -218
-46 243 -220
-47 244 -224
-47 245 -225
-47 259 -225
-48 260 -226
-46 268 -220
-46 269 -221
-48 271 -226
-48 272 -228
-46 273 -221
-47 274 -223
-48 284 -228
-48 285 -229
-48 293 -229
-49 294 -231
-49 297 -231
-49 298 -232
-49 304 -232
-49 305 -234
-49 314 -234
-49 315 -235
-47 325 -223
-47 326 -224
-47 341 -224
-47 342 -225
-47 353 -225
-48 354 -226
-49 356 -235
-50 357 -237
-48 372 -226
-48 373 -228
-50 378 -237
-50 379 -238
-48 383 -228
-48 384 -229
-48 399 -229
-49 400 -231
-49 414 -231
-49 415 -232
-49 416 -232
-49 417 -234
-50 428 -238
-50 429 -240
-50 433 -240
-49 434 -235
-49 435 -235
-49 440 -235
-50 441 -237
-51 454 -241
-51 455 -243
-50 456 -237
-50 457 -238
-50 468 -238
-50 469 -240
-50 482 -240
-51 483 -241
-51 484 -244
-51 494 -243
-51 495 -243
-51 210 -219
-51 211 -219
-51 215 -220
-52 226 -221
-52 238 -221
-52 239 -222
-52 246 -222
-52 247 -224
-51 251 -217
-51 252 -219
-52 261 -224
-53 262 -225
-51 268 -219
-51 269 -220
-53 271 -225
-53 272 -227
-51 273 -220
-52 274 -221
-53 286 -227
-53 287 -228
-53 292 -228
-54 293 -230
-54 298 -230
-54 299 -231
-54 300 -231
-54 301 -233
-54 315 -233
-55 316 -234
-52 324 -221
-52 325 -222
-52 341 -222
-52 342 -224
-53 351 -225
-53 352 -227
-53 366 -225
-53 367 -227
-55 380 -236
-55 381 -237
-53 384 -227
-53 385 -228
-53 397 -228
-54 398 -230
-54 416 -230
-54 417 -231
-54 420 -231
-54 421 -233
-55 429 -237
-56 430 -239
-56 432 -239
-55 433 -234
-55 434 -234
-55 443 -234
-55 444 -236
-55 461 -236
-55 462 -237
-56 463 -242
-55 468 -237
-56 469 -239
-56 483 -239
-56 484 -240
-57 485 -243
-56 494 -242
-56 495 -242
-56 214 -217
-56 215 -217
-56 221 -218
-57 232 -220
-57 238 -220
-57 239 -221
-55 254 -215
-56 255 -217
-57 260 -221
-57 261 -223
-56 267 -217
-56 268 -218
-58 269 -224
-58 279 -224
-58 280 -226
-58 291 -226
-57 292 -220
-57 293 -220
-58 296 -227
-59 298 -230
-59 313 -230
-60 314 -232
-60 316 -232
-60 317 -233
-57 325 -220
-57 326 -221
-60 347 -233
-58 348 -224
-57 349 -223
-57 355 -223
-58 356 -224
-58 373 -224
-58 374 -226
-60 381 -235
-61 382 -236
-58 383 -226
-58 384 -227
-58 399 -227
-59 400 -229
-59 417 -229
-59 418 -230
-59 419 -230
-60 420 -232
-61 430 -236
-60 431 -233
-60 432 -233
-61 435 -238
-61 436 -239
-60 439 -233
-60 440 -235
-60 460 -235
-61 461 -236
-61 470 -236
-61 471 -238
-62 472 -241
-61 483 -239
-61 484 -239
-60 202 -214
-60 203 -214
-61 214 -216
-61 219 -217
-61 230 -217
-61 231 -219
-60 237 -213
-60 238 -214
-61 239 -219
-62 240 -220
-60 255 -214
-61 256 -216
-62 264 -220
-62 265 -222
-62 271 -222
-63 272 -223
-63 278 -223
-63 279 -225
-63 287 -225
-63 288 -226
-63 292 -226
-64 293 -228
-61 296 -219
-64 297 -229
-61 298 -219
-64 313 -229
-65 314 -230
-65 316 -230
-65 317 -231
-61 334 -219
-62 335 -220
-62 348 -220
-62 349 -222
-65 356 -231
-63 357 -225
-63 358 -223
-63 363 -223
-63 364 -225
-63 387 -225
-64 388 -228
-66 389 -234
-63 391 -226
-64 392 -228
-64 416 -228
-64 417 -229
-64 418 -229
-65 419 -231
-66 420 -236
-65 427 -230
-65 428 -231
-66 433 -236
-67 434 -237
-65 439 -231
-66 440 -233
-66 463 -233
-66 464 -234
-66 472 -234
-66 473 -236
-67 474 -239
-67 487 -237
-67 488 -237
-65 204 -213
-65 205 -213
-65 215 -215
-66 222 -216
-66 231 -216
-66 232 -217
-65 239 -213
-65 240 -215
-65 256 -213
-65 257 -215
-67 263 -218
-67 264 -220
-67 271 -220
-67 272 -221
-67 281 -221
-68 282 -223
-68 288 -223
-68 289 -224
-65 295 -215
-66 296 -217
-69 297 -226
-69 299 -226
-69 300 -227
-66 301 -216
-66 302 -217
-69 311 -227
-70 312 -229
-70 324 -229
-70 325 -230
-66 326 -217
-67 327 -218
-67 350 -218
-67 351 -220
-67 356 -220
-67 357 -221
-70 367 -230
-71 368 -232
-67 379 -221
-68 380 -223
-68 383 -223
-68 384 -224
-71 389 -232
-71 390 -233
-68 400 -224
-69 401 -226
-69 415 -226
-69 416 -227
-69 418 -227
-70 419 -229
-71 423 -233
-72 424 -235
-70 429 -229
-70 430 -230
-70 439 -230
-71 440 -232
-72 441 -236
-71 464 -232
-71 465 -233
-71 477 -233
-72 478 -235
-72 479 -238
-72 492 -236
-72 493 -236
-70 209 -211
-70 210 -211
-70 215 -213
-70 221 -214
-70 235 -214
-71 236 -216
-69 238 -210
-70 239 -211
-71 240 -216
-71 241 -217
-70 256 -211
-70 257 -213
-71 265 -217
-72 266 -219
-72 274 -219
-72 275 -220
-72 282 -220
-73 283 -222
-73 288 -222
-73 289 -223
-70 295 -213
-70 296 -214
-73 297 -223
-74 298 -225
-74 300 -225
-74 301 -225
-70 304 -214
-71 305 -216
-74 313 -225
-75 314 -227
-71 318 -216
-71 319 -217
-75 324 -227
-75 325 -228
-71 350 -217
-72 351 -219
-72 357 -219
-72 358 -220
-75 366 -228
-76 367 -230
-72 383 -220
-73 384 -222
-76 388 -230
-76 389 -231
-73 391 -222
-73 392 -223
-73 400 -223
-74 401 -225
-74 416 -225
-74 417 -225
-74 418 -225
-75 419 -227
-76 424 -231
-77 425 -233
-75 438 -227
-75 439 -228
-77 442 -233
-77 443 -234
-75 451 -228
-76 452 -230
-76 463 -230
-76 464 -231
-76 475 -231
-77 476 -233
-78 477 -236
-77 491 -234
-77 492 -234
-74 206 -210
-74 207 -210
-75 216 -211
-75 222 -212
-75 233 -212
-76 234 -214
-74 243 -210
-75 244 -211
-74 257 -210
-75 258 -211
-76 260 -215
-77 261 -217
-77 267 -217
-77 268 -218
-77 284 -218
-78 285 -220
-78 289 -220
-78 290 -221
-75 295 -211
-75 296 -212
-76 297 -215
-77 298 -218
-79 303 -223
-79 304 -224
-79 313 -224
-80 314 -226
-76 323 -214
-76 324 -215
-80 349 -226
-80 350 -227
-76 352 -215
-77 353 -217
-80 354 -227
-81 355 -228
-77 363 -217
-77 364 -218
-77 383 -218
-78 384 -220
-78 392 -221
-79 393 -223
-78 401 -221
-79 402 -223
-79 416 -223
-79 417 -224
-79 420 -224
-80 421 -226
-81 428 -229
-82 429 -231
-80 441 -226
-80 442 -227
-82 448 -231
-82 449 -232
-80 454 -227
-81 455 -228
-81 465 -228
-81 466 -229
-81 478 -229
-82 479 -231
-83 480 -234
-82 492 -232
-82 493 -232
-79 208 -208
-79 209 -208
-80 216 -210
-80 222 -211
-80 234 -211
-81 235 -213
-81 240 -213
-81 241 -214
-78 243 -207
-79 244 -208
-79 256 -208
-80 257 -210
-81 261 -214
-82 262 -215
-82 266 -215
-82 267 -216
-82 276 -216
-83 277 -218
-83 290 -218
-83 291 -219
-80 296 -210
-80 297 -211
-83 298 -219
-84 299 -221
-84 301 -221
-84 302 -222
-84 311 -222
-85 312 -224
-80 323 -211
-81 324 -213
-81 325 -213
-81 326 -214
-81 351 -214
-82 352 -215
-85 359 -224
-85 360 -225
-82 364 -215
-83 365 -218
-86 366 -227
-82 384 -216
-83 385 -218
-86 390 -227
-86 391 -228
-83 393 -218
-83 394 -219
-83 402 -219
-84 403 -221
-84 416 -221
-84 417 -222
-86 423 -228
-87 424 -229
-84 426 -222
-85 427 -224
-85 441 -224
-85 442 -225
-87 448 -229
-87 449 -230
-85 459 -225
-86 460 -227
-86 466 -227
-86 467 -228
-86 478 -228
-87 479 -229
-88 480 -232
-87 495 -230
-87 496 -230
-83 209 -206
-83 210 -206
-84 217 -208
-85 223 -209
-85 237 -209
-85 238 -211
-83 243 -205
-83 244 -206
-85 245 -211
-86 246 -212
-86 259 -212
-86 260 -214
-86 268 -214
-87 269 -214
-83 271 -206
-84 272 -208
-87 278 -214
-88 279 -216
-88 289 -216
-88 290 -217
-85 296 -209
-85 297 -211
-89 302 -219
-89 303 -220
-89 314 -220
-90 315 -222
-90 316 -222
-90 317 -223
-85 322 -209
-85 323 -211
-85 327 -211
-86 328 -212
-90 347 -223
-90 348 -222
-90 349 -223
-86 357 -212
-87 358 -214
-91 359 -225
-86 372 -214
-87 373 -214
-87 382 -214
-88 383 -216
-88 389 -216
-88 390 -217
-88 404 -217
-89 405 -219
-89 414 -219
-89 415 -220
-91 421 -225
-91 422 -226
-91 428 -226
-92 429 -227
-89 430 -220
-90 431 -222
-90 446 -222
-90 447 -223
-92 449 -227
-92 450 -228
-90 460 -223
-91 461 -225
-91 466 -225
-91 467 -226
-91 482 -226
-92 483 -227
-93 484 -230
-92 494 -228
-92 495 -228
-88 199 -203
-88 200 -203
-88 208 -204
-89 218 -206
-87 227 -201
-88 228 -203
-89 237 -207
-90 238 -209
-90 248 -209
-90 249 -210
-88 254 -203
-88 255 -204
-90 256 -210
-91 257 -212
-88 268 -204
-89 269 -206
-91 271 -212
-92 272 -212
-92 281 -212
-92 282 -214
-92 292 -214
-93 293 -215
-93 302 -215
-89 303 -206
-90 304 -210
-94 313 -218
-95 314 -220
-89 323 -207
-90 324 -209
-90 329 -209
-90 330 -210
-95 348 -220
-95 349 -221
-90 352 -210
-91 353 -212
-91 364 -212
-92 365 -212
-95 382 -221
-96 383 -223
-92 388 -212
-92 389 -214
-92 392 -214
-93 393 -215
-93 401 -215
-94 402 -217
-94 408 -217
-94 409 -218
-96 426 -223
-96 427 -223
-96 428 -223
-97 429 -225
-94 433 -218
-95 434 -220
-95 440 -220
-95 441 -221
-97 452 -225
-98 453 -226
-95 461 -221
-96 462 -223
-96 467 -223
-96 468 -223
-96 482 -223
-97 483 -225
-98 484 -228
-98 496 -226
-98 497 -226
-93 211 -202
-93 212 -202
-93 220 -204
-94 230 -205
-94 238 -205
-95 239 -207
-92 250 -201
-93 251 -202
-95 255 -207
-95 256 -208
-95 260 -208
-96 261 -209
-93 268 -204
-94 269 -205
-96 276 -210
-97 277 -212
-97 292 -212
-98 293 -213
-98 297 -213
-98 298 -215
-98 303 -215
-99 304 -216
-99 312 -216
-100 313 -218
-93 322 -204
-94 323 -205
-94 324 -205
-95 325 -207
-95 334 -207
-95 335 -208
-100 347 -218
-100 348 -219
-95 352 -208
-96 353 -209
-96 382 -209
-96 383 -210
-96 385 -210
-97 386 -212
-97 391 -212
-98 392 -213
-100 407 -219
-101 408 -220
-98 411 -213
-98 412 -215
-98 415 -215
-99 416 -216
-101 421 -220
-101 422 -221
-101 430 -221
-102 431 -223
-99 433 -216
-100 434 -218
-100 445 -218
-100 446 -219
-102 458 -223
-103 459 -224
-100 461 -219
-101 462 -220
-101 470 -220
-101 471 -221
-101 483 -221
-102 484 -223
-103 485 -226
-103 497 -224
-103 498 -224
-97 199 -199
-97 200 -199
-97 212 -200
-98 218 -202
-98 229 -202
-98 230 -203
-96 231 -197
-97 232 -199
-98 239 -203
-99 240 -205
-97 250 -199
-97 251 -200
-99 256 -205
-100 257 -205
-100 261 -205
-100 262 -207
-100 267 -207
-101 268 -208
-97 271 -200
-98 272 -202
-101 285 -208
-102 286 -210
-102 293 -210
-102 294 -211
-98 303 -203
-99 304 -205
-103 307 -213
-104 308 -214
-104 312 -214
-104 313 -215
-98 324 -203
-99 325 -205
-99 350 -205
-100 351 -205
-104 356 -215
-101 357 -208
-100 358 -207
-100 382 -207
-101 383 -208
-101 384 -208
-102 385 -210
-102 389 -210
-102 390 -211
-105 404 -216
-106 405 -218
-102 408 -211
-103 409 -213
-106 412 -218
-106 413 -219
-103 423 -213
-104 424 -214
-104 433 -214
-104 434 -215
-106 436 -219
-107 437 -221
-104 450 -215
-105 451 -216
-107 460 -221
-107 461 -222
-105 463 -216
-106 464 -218
-106 480 -218
-106 481 -219
-106 484 -219
-107 485 -221
-108 486 -223
-107 500 -222
-107 501 -222
-101 214 -198
-101 215 -198
-102 222 -200
-103 231 -201
-103 240 -201
-104 241 -202
-101 254 -198
-102 255 -200
-104 266 -203
-105 267 -205
-102 270 -200
-103 271 -201
-106 293 -206
-107 295 -209
-107 303 -209
-108 304 -210
-108 312 -210
-104 313 -202
-103 314 -201
-108 315 -211
-109 316 -213
-103 333 -201
-104 334 -202
-109 349 -213
-110 350 -214
-104 351 -202
-104 352 -203
-104 356 -203
-105 357 -205
-105 379 -205
-106 380 -208
-111 381 -216
-106 383 -206
-106 384 -208
-106 399 -208
-107 400 -209
-107 404 -209
-108 405 -210
-111 416 -216
-111 417 -217
-108 420 -210
-108 421 -211
-111 439 -217
-109 440 -213
-109 441 -213
-109 449 -213
-110 450 -214
-112 458 -218
-112 459 -219
-110 464 -214
-111 465 -216
-111 473 -216
-111 474 -217
-111 485 -217
-112 486 -218
-113 487 -221
-112 488 -219
-105 210 -195
-105 211 -195
-106 216 -196
-107 224 -197
-107 231 -197
-107 232 -198
-104 239 -193
-105 240 -195
-107 241 -198
-108 242 -200
-108 254 -200
-106 255 -196
-106 256 -196
-109 267 -201
-110 268 -203
-106 271 -196
-107 272 -197
-110 274 -203
-110 275 -203
-110 290 -203
-111 291 -205
-111 295 -205
-112 296 -206
-112 303 -206
-112 304 -208
-112 313 -208
-113 314 -209
-113 316 -209
-114 317 -210
-107 322 -197
-107 323 -198
-107 341 -198
-108 342 -200
-108 349 -200
-109 350 -201
-109 361 -201
-110 362 -203
-114 382 -210
-110 383 -203
-110 384 -203
-110 385 -203
-111 386 -205
-111 392 -205
-112 393 -206
-114 409 -211
-115 410 -213
-112 412 -206
-112 413 -208
-115 417 -213
-116 418 -214
-112 422 -208
-113 423 -209
-113 439 -209
-114 440 -210
-116 441 -214
-117 442 -216
-114 454 -210
-114 455 -211
-114 463 -211
-115 464 -213
-115 480 -213
-116 481 -214
-117 482 -217
-117 489 -216
-117 490 -216
-110 213 -192
-110 214 -192
-110 216 -193
-111 224 -195
-111 233 -195
-112 234 -196
-109 242 -191
-110 243 -192
-113 244 -197
-113 257 -197
-113 258 -198
-110 262 -192
-110 263 -193
-113 267 -198
-114 268 -200
-110 272 -193
-111 273 -195
-114 276 -200
-115 277 -201
-115 287 -201
-116 288 -203
-116 297 -203
-116 298 -204
-116 299 -204
-117 300 -205
-117 314 -205
-118 315 -206
-118 316 -206
-119 317 -208
-111 325 -195
-112 326 -196
-112 340 -196
-113 341 -197
-113 352 -197
-113 353 -198
-113 359 -198
-114 360 -200
-114 382 -200
-115 383 -201
-115 384 -201
-116 385 -203
-119 390 -208
-120 392 -211
-116 394 -203
-116 395 -204
-116 412 -204
-117 413 -205
-120 424 -211
-118 425 -206
-118 426 -206
-118 440 -206
-119 441 -208
-121 446 -211
-122 447 -213
-119 456 -208
-119 457 -209
-119 467 -209
-120 468 -211
-120 480 -211
-121 481 -211
-122 482 -214
-122 490 -213
-122 491 -213
-114 209 -190
-114 210 -190
-114 217 -191
-115 225 -192
-115 232 -192
-116 233 -193
-113 242 -188
-114 243 -190
-116 244 -193
-117 245 -195
-117 261 -195
-117 262 -196
-114 267 -190
-115 268 -192
-118 269 -197
-114 271 -191
-115 272 -192
-118 281 -197
-119 282 -198
-115 285 -192
-114 286 -191
-119 290 -198
-120 291 -200
-120 295 -200
-121 296 -201
-121 303 -201
-122 304 -203
-116 312 -193
-117 313 -195
-115 326 -192
-116 327 -193
-116 344 -193
-117 345 -195
-117 352 -195
-117 353 -196
-122 358 -203
-118 359 -197
-118 360 -197
-118 383 -197
-119 384 -198
-119 385 -198
-120 386 -200
-123 392 -205
-124 393 -206
-120 403 -200
-122 404 -203
-125 405 -208
-121 417 -201
-122 418 -203
-122 428 -203
-122 429 -203
-125 430 -209
-122 443 -203
-123 444 -205
-125 445 -209
-126 446 -210
-123 461 -205
-124 462 -206
-124 471 -206
-125 472 -208
-125 482 -208
-125 483 -209
-127 484 -211
-126 491 -210
-126 492 -210
-119 217 -188
-119 218 -188
-120 231 -190
-120 240 -191
-120 244 -191
-121 245 -192
-121 267 -192
-119 268 -188
-119 269 -188
-122 270 -193
-123 271 -195
-119 277 -188
-120 278 -190
-123 283 -195
-123 284 -196
-120 285 -190
-119 286 -188
-123 292 -196
-124 293 -197
-124 296 -197
-125 297 -198
-125 303 -198
-126 304 -200
-126 312 -200
-120 313 -191
-120 314 -190
-120 327 -190
-120 328 -191
-120 342 -191
-121 343 -192
-121 355 -192
-122 356 -193
-127 367 -201
-128 368 -202
-122 382 -193
-123 383 -195
-123 384 -195
-124 385 -197
-124 386 -197
-128 397 -202
-128 398 -203
-124 402 -197
-125 403 -198
-128 407 -203
-129 408 -205
-125 412 -198
-126 413 -200
-129 427 -205
-127 428 -201
-127 429 -201
-127 444 -201
-128 445 -202
-130 451 -206
-131 452 -207
-128 459 -202
-128 460 -203
-128 471 -203
-129 472 -205
-129 488 -205
-130 489 -206
-131 490 -208
-131 497 -207
-131 498 -207
-122 208 -185
-122 209 -185
-123 219 -185
-124 228 -187
-124 233 -187
-124 234 -188
-121 236 -183
-122 237 -185
-124 251 -188
-125 252 -190
-125 268 -190
-126 269 -190
-122 270 -185
-123 271 -185
-126 272 -190
-127 273 -192
-123 280 -185
-124 281 -187
-127 283 -192
-128 284 -193
-124 285 -187
-123 286 -185
-128 294 -193
-129 295 -195
-129 297 -195
-129 298 -195
-129 311 -195
-124 312 -188
-124 313 -187
-130 314 -197
-131 315 -198
-124 326 -187
-124 327 -188
-124 342 -188
-125 343 -190
-125 360 -190
-126 361 -190
-131 365 -198
-132 366 -200
-127 382 -192
-128 383 -193
-127 384 -192
-128 385 -193
-128 392 -193
-129 393 -195
-129 408 -195
-129 409 -195
-130 414 -197
-131 415 -198
-131 429 -198
-132 430 -200
-131 444 -198
-132 445 -200
-134 452 -203
-135 453 -205
-132 463 -200
-133 464 -200
-133 473 -200
-134 474 -202
-134 484 -202
-134 485 -203
-136 486 -205
-135 498 -205
-135 499 -205
-127 217 -183
-127 218 -183
-128 233 -184
-129 241 -185
-129 253 -185
-130 254 -187
-130 267 -187
-130 268 -188
-126 269 -182
-127 270 -183
-130 273 -188
-131 274 -189
-131 283 -189
-132 284 -190
-132 294 -190
-133 295 -192
-133 298 -192
-134 299 -192
-134 316 -192
-135 318 -195
-127 323 -183
-128 324 -184
-128 326 -184
-129 327 -185
-135 332 -195
-137 333 -197
-129 350 -185
-130 351 -187
-130 358 -187
-130 359 -188
-130 383 -188
-131 384 -189
-131 385 -189
-132 386 -190
-132 389 -190
-134 390 -192
-137 391 -197
-133 401 -192
-134 402 -192
-134 413 -192
-135 414 -194
-137 416 -197
-138 417 -199
-138 430 -199
-139 431 -200
-135 436 -194
-135 437 -195
-135 445 -195
-137 446 -197
-139 455 -200
-140 456 -201
-137 465 -197
-137 466 -197
-137 479 -197
-138 480 -199
-140 487 -201
-139 489 -200
-139 490 -200
-131 220 -180
-131 221 -180
-132 233 -181
-133 240 -182
-133 256 -182
-134 257 -184
-134 266 -184
-134 267 -185
-130 269 -179
-131 270 -180
-134 274 -185
-136 275 -186
-136 284 -186
-136 285 -187
-136 293 -187
-137 294 -189
-137 296 -189
-138 297 -189
-138 303 -189
-139 304 -191
-139 324 -191
-133 325 -182
-132 326 -181
-132 328 -181
-133 329 -182
-133 345 -182
-134 346 -184
-134 357 -184
-134 358 -185
-134 380 -185
-136 381 -187
-141 382 -193
-136 385 -186
-136 386 -187
-141 390 -193
-141 391 -194
-136 399 -187
-137 400 -189
-137 405 -189
-138 406 -189
-138 410 -189
-139 411 -191
-141 420 -194
-143 421 -196
-139 426 -191
-140 427 -192
-143 431 -196
-143 432 -197
-140 452 -192
-141 453 -193
-143 456 -197
-144 457 -198
-141 467 -193
-141 468 -194
-141 473 -194
-143 474 -196
-144 486 -198
-143 490 -197
-143 491 -197
-135 218 -177
-135 219 -177
-136 220 -178
-134 221 -176
-133 222 -174
-136 233 -178
-136 240 -178
-137 241 -179
-133 250 -174
-134 251 -176
-137 261 -179
-138 262 -181
-138 266 -181
-138 267 -182
-138 276 -182
-140 277 -183
-134 278 -176
-135 279 -177
-140 284 -183
-140 285 -184
-140 294 -184
-141 295 -186
-141 297 -186
-142 298 -186
-142 302 -186
-143 303 -188
-137 324 -179
-138 325 -181
-136 341 -178
-137 342 -179
-144 347 -189
-145 348 -190
-137 353 -179
-138 354 -181
-138 365 -181
-138 366 -182
-138 382 -182
-140 383 -183
-140 384 -183
-140 385 -184
-145 390 -190
-146 391 -191
-140 397 -184
-141 398 -186
-141 408 -186
-142 409 -186
-142 415 -186
-143 416 -188
-146 422 -191
-147 423 -193
-143 427 -188
-144 428 -189
-147 435 -193
-148 436 -193
-144 455 -189
-145 456 -190
-145 467 -190
-146 468 -191
-146 478 -191
-147 479 -193
-149 480 -195
-148 493 -193
-148 494 -193
-138 222 -173
-137 223 -171
-140 235 -175
-140 240 -175
-141 241 -176
-137 253 -171
-138 254 -173
-141 262 -176
-142 263 -178
-142 268 -178
-142 269 -178
-142 276 -178
-144 277 -180
-144 285 -180
-144 286 -181
-138 289 -173
-139 290 -174
-144 295 -181
-146 296 -182
-146 302 -182
-147 304 -185
-147 316 -185
-148 317 -185
-139 325 -174
-140 326 -175
-140 333 -175
-141 334 -176
-148 346 -185
-149 347 -187
-141 357 -176
-142 358 -178
-142 363 -178
-142 364 -178
-149 378 -187
-148 379 -185
-148 380 -185
-149 381 -187
-142 382 -178
-144 383 -180
-144 384 -180
-144 385 -181
-144 391 -181
-146 392 -183
-150 393 -188
-146 413 -182
-146 414 -183
-146 422 -183
-147 423 -185
-151 424 -189
-147 429 -185
-148 430 -185
-151 437 -189
-152 438 -190
-148 455 -185
-149 456 -187
-149 468 -187
-150 469 -188
-150 480 -188
-151 481 -189
-153 482 -192
-152 494 -190
-152 495 -190
-142 217 -170
-142 218 -170
-143 225 -171
-144 237 -172
-144 241 -172
-144 242 -173
-141 255 -168
-142 256 -170
-144 262 -173
-146 263 -174
-146 271 -174
-146 272 -175
-146 281 -175
-148 282 -177
-148 286 -177
-148 287 -177
-148 294 -177
-144 295 -172
-143 296 -171
-150 301 -179
-150 302 -180
-150 312 -180
-152 313 -181
-152 316 -181
-152 317 -182
-143 325 -171
-144 326 -172
-144 334 -172
-144 335 -173
-144 360 -173
-146 361 -174
-146 362 -174
-146 363 -175
-146 381 -175
-148 382 -177
-148 384 -177
-148 385 -177
-152 387 -182
-153 388 -184
-153 390 -184
-154 391 -184
-148 395 -177
-150 396 -179
-150 415 -179
-150 416 -180
-154 422 -184
-155 423 -186
-150 426 -180
-152 427 -181
-152 435 -181
-152 436 -182
-155 444 -186
-156 445 -187
-152 459 -182
-153 460 -184
-153 468 -184
-154 469 -184
-154 484 -184
-155 485 -186
-157 486 -188
-156 494 -187
-156 495 -187
-146 220 -167
-146 221 -167
-146 225 -167
-148 240 -169
-148 247 -169
-148 248 -170
-144 257 -165
-146 258 -167
-148 260 -170
-150 261 -171
-150 272 -171
-150 273 -172
-150 280 -172
-152 281 -173
-152 282 -173
-152 283 -174
-152 297 -174
-154 298 -176
-154 302 -176
-154 303 -176
-146 311 -167
-148 312 -170
-155 313 -178
-146 326 -167
-148 327 -169
-150 345 -171
-150 346 -172
-156 348 -179
-157 349 -180
-148 354 -170
-150 355 -171
-150 369 -171
-150 370 -172
-157 380 -180
-152 381 -173
-152 382 -173
-152 383 -173
-152 384 -174
-156 391 -179
-157 392 -180
-152 401 -174
-154 402 -176
-157 407 -180
-158 408 -181
-154 416 -176
-154 417 -176
-158 429 -181
-155 430 -178
-155 431 -178
-155 435 -178
-156 436 -179
-159 449 -182
-160 450 -183
-156 460 -179
-157 461 -180
-157 475 -180
-158 476 -181
-158 486 -181
-159 487 -182
-161 488 -185
-160 503 -183
-160 504 -183
-149 221 -163
-149 222 -163
-148 227 -162
-147 228 -161
-150 239 -164
-151 240 -166
-151 246 -166
-152 247 -166
-147 255 -161
-148 256 -162
-152 260 -166
-153 261 -168
-148 268 -162
-149 269 -163
-153 276 -168
-154 277 -169
-154 281 -169
-155 282 -170
-155 292 -170
-156 293 -171
-156 295 -171
-157 296 -172
-157 302 -172
-158 303 -173
-158 312 -173
-156 313 -171
-150 314 -164
-150 341 -164
-151 342 -166
-159 345 -174
-160 346 -175
-157 347 -172
-158 348 -173
-152 359 -166
-153 360 -168
-153 374 -168
-154 375 -169
-154 376 -169
-155 377 -170
-161 378 -177
-160 379 -175
-155 383 -170
-156 384 -171
-156 399 -171
-157 400 -172
-160 403 -175
-161 404 -177
-161 409 -177
-162 410 -177
-157 422 -172
-158 423 -173
-162 433 -177
-163 434 -179
-158 435 -173
-159 436 -174
-159 440 -174
-160 441 -175
-163 453 -179
-164 454 -180
-160 461 -175
-161 462 -177
-161 480 -177
-163 481 -179
-162 486 -177
-163 487 -179
-165 488 -181
-164 502 -180
-164 503 -180
-153 222 -160
-153 223 -160
-154 229 -161
-155 240 -162
-155 244 -162
-156 245 -163
-156 260 -163
-157 261 -164
-157 275 -164
-158 276 -165
-158 281 -165
-159 282 -166
-152 287 -159
-153 288 -160
-159 290 -166
-160 291 -167
-160 296 -167
-161 297 -169
-161 302 -169
-162 303 -169
-162 312 -169
-163 313 -171
-153 324 -160
-154 325 -161
-154 341 -161
-155 342 -162
-163 346 -171
-164 347 -172
-155 349 -162
-156 350 -163
-156 358 -163
-157 359 -164
-157 372 -164
-158 373 -165
-158 383 -165
-159 384 -166
-159 389 -166
-160 390 -167
-164 408 -172
-165 409 -173
-160 410 -167
-161 411 -169
-165 421 -173
-166 422 -174
-161 426 -169
-162 427 -169
-166 430 -174
-167 431 -175
-162 437 -169
-163 438 -171
-163 453 -171
-164 454 -172
-167 458 -175
-168 459 -176
-164 465 -172
-165 466 -173
-165 477 -173
-166 478 -174
-166 491 -174
-167 492 -175
-169 493 -177
-168 501 -176
-168 502 -176
-155 221 -155
-154 222 -154
-157 231 -157
-157 241 -157
-159 243 -159
-154 251 -154
-155 252 -155
-159 261 -159
-161 262 -161
-161 276 -161
-161 277 -161
-155 280 -155
-156 281 -157
-161 282 -161
-163 283 -163
-163 291 -163
-163 292 -164
-163 297 -164
-165 298 -165
-165 311 -165
-166 312 -166
-166 313 -166
-167 314 -167
-156 324 -157
-157 325 -157
-157 343 -157
-159 344 -159
-159 352 -159
-159 353 -159
-159 361 -159
-161 362 -161
-167 367 -167
-168 368 -168
-161 375 -161
-161 376 -161
-161 383 -161
-163 384 -163
-163 398 -163
-163 399 -164
-163 403 -164
-165 404 -165
-168 414 -168
-169 415 -169
-169 420 -169
-170 421 -170
-165 428 -165
-166 429 -166
-166 439 -166
-167 440 -167
-170 447 -170
-171 448 -171
-167 456 -167
-168 457 -168
-168 468 -168
-169 469 -169
-169 478 -169
-170 479 -170
-172 480 -172
-171 489 -171
-171 490 -171
-158 215 -152
-158 216 -152
-160 220 -153
-161 231 -154
-161 241 -154
-162 242 -155
-162 249 -155
-163 250 -156
-158 251 -151
-158 252 -152
-163 259 -156
-164 260 -157
-164 271 -157
-165 272 -158
-165 283 -158
-166 284 -159
-166 288 -159
-167 289 -160
-158 295 -152
-160 296 -153
-167 299 -160
-169 300 -161
-169 311 -161
-169 312 -162
-169 313 -162
-171 314 -163
-160 323 -153
-161 324 -154
-161 347 -154
-162 348 -155
-162 350 -155
-163 351 -156
-163 364 -156
-164 365 -157
-164 370 -157
-165 371 -158
-171 375 -163
-171 376 -164
-165 384 -158
-166 385 -159
-166 392 -159
-167 393 -160
-167 407 -160
-169 408 -161
-171 417 -164
-173 418 -165
-173 422 -165
-174 423 -166
-169 431 -161
-169 432 -162
-169 437 -162
-171 438 -163
-174 447 -166
-175 448 -168
-171 452 -163
-171 453 -164
-171 464 -164
-173 465 -165
-173 482 -165
-174 483 -166
-176 484 -168
-175 493 -168
-175 494 -168
-162 215 -148
-162 216 -148
-163 219 -149
-164 230 -150
-164 241 -150
-165 242 -151
-165 252 -151
-166 253 -152
-161 255 -147
-162 256 -148
-166 263 -152
-168 264 -153
-168 271 -153
-168 272 -154
-168 281 -154
-170 282 -156
-170 292 -156
-171 293 -156
-162 295 -148
-163 296 -149
-171 300 -156
-172 301 -158
-172 311 -158
-173 312 -158
-173 313 -158
-174 314 -160
-163 324 -149
-164 325 -150
-164 346 -150
-165 347 -151
-165 351 -151
-166 352 -152
-166 364 -152
-168 365 -153
-168 373 -153
-168 374 -154
-174 377 -160
-175 378 -160
-168 387 -154
-170 388 -156
-170 404 -156
-171 405 -156
-171 412 -156
-172 413 -158
-175 416 -160
-176 417 -162
-176 420 -162
-177 421 -162
-172 433 -158
-173 434 -158
-173 447 -158
-174 448 -160
-177 453 -162
-179 454 -164
-174 458 -160
-175 459 -160
-175 467 -160
-176 468 -162
-176 485 -162
-177 486 -162
-179 487 -164
-179 494 -164
-179 495 -164
-165 210 -144
-165 211 -144
-166 220 -146
-167 233 -146
-167 242 -146
-169 243 -148
-169 253 -148
-170 254 -148
-164 257 -144
-165 258 -144
-170 268 -148
-171 269 -150
-171 274 -150
-172 275 -150
-172 288 -150
-173 289 -152
-173 292 -152
-174 293 -152
-165 296 -144
-166 297 -146
-174 301 -152
-176 302 -154
-176 303 -154
-176 304 -154
-176 315 -154
-178 316 -156
-166 324 -146
-167 325 -146
-167 347 -146
-169 348 -148
-169 359 -148
-170 360 -148
-170 364 -148
-171 365 -150
-171 376 -150
-172 377 -150
-178 380 -156
-179 381 -156
-172 390 -150
-173 391 -152
-173 412 -152
-174 413 -152
-174 414 -152
-176 415 -154
-179 416 -156
-180 417 -158
-180 428 -158
-181 429 -158
-176 433 -154
-176 434 -154
-176 449 -154
-178 450 -156
-181 454 -158
-182 455 -160
-178 459 -156
-179 460 -156
-179 470 -156
-180 471 -158
-180 489 -158
-181 490 -158
-183 491 -160
-182 504 -160
-182 505 -160
-167 207 -140
-167 208 -140
-168 212 -141
-170 220 -142
-170 233 -142
-170 234 -143
-166 240 -139
-167 241 -140
-172 242 -144
-172 249 -144
-173 250 -145
-167 256 -140
-168 257 -141
-173 268 -145
-174 269 -146
-174 273 -146
-175 274 -147
-175 287 -147
-177 288 -148
-177 294 -148
-177 295 -148
-177 302 -148
-179 303 -150
-179 311 -150
-180 312 -150
-180 316 -150
-181 317 -152
-168 323 -141
-170 324 -142
-170 335 -142
-170 336 -143
-170 347 -143
-172 348 -144
-172 358 -144
-173 359 -145
-173 373 -145
-174 374 -146
-174 377 -146
-175 378 -147
-181 382 -152
-182 383 -152
-175 399 -147
-177 400 -148
-182 402 -152
-177 403 -148
-177 404 -148
-177 421 -148
-179 422 -150
-183 424 -154
-184 425 -154
-179 436 -150
-180 437 -150
-180 453 -150
-181 454 -152
-181 461 -152
-182 462 -152
-186 467 -156
-182 473 -152
-183 474 -154
-183 490 -154
-184 491 -154
-187 492 -156
-186 498 -156
-186 499 -156
-170 207 -136
-170 208 -136
-171 217 -137
-173 222 -138
-173 232 -138
-174 233 -139
-169 239 -135
-170 240 -136
-174 245 -139
-175 246 -140
-170 251 -136
-171 252 -137
-175 255 -140
-176 256 -141
-176 268 -141
-177 269 -142
-171 271 -137
-173 272 -138
-177 280 -142
-174 281 -139
-171 282 -137
-178 285 -143
-180 286 -144
-180 293 -144
-181 294 -144
-181 302 -144
-182 303 -146
-182 313 -146
-183 314 -146
-183 315 -146
-185 316 -148
-171 323 -137
-173 324 -138
-173 328 -138
-174 329 -139
-185 347 -148
-183 348 -146
-174 351 -139
-175 352 -140
-175 360 -140
-176 361 -141
-177 376 -142
-178 377 -143
-177 379 -142
-178 380 -143
-185 385 -148
-185 386 -148
-178 391 -143
-180 392 -144
-180 405 -144
-181 406 -144
-185 416 -148
-187 417 -149
-181 421 -144
-182 422 -146
-187 430 -149
-188 431 -150
-182 438 -146
-183 439 -146
-183 455 -146
-185 456 -148
-185 463 -148
-185 464 -148
-185 477 -148
-187 478 -149
-189 479 -151
-188 491 -150
-188 492 -150
-173 208 -133
-173 209 -133
-174 216 -133
-176 224 -134
-176 232 -134
-177 233 -135
-172 239 -131
-173 240 -133
-177 248 -135
-178 249 -136
-173 254 -133
-174 255 -133
-179 256 -137
-179 272 -137
-181 273 -138
-174 276 -133
-176 277 -134
-181 278 -138
-181 279 -139
-176 280 -134
-174 281 -133
-181 292 -139
-183 293 -140
-183 296 -140
-184 297 -140
-184 303 -140
-185 304 -142
-185 312 -142
-177 313 -135
-176 314 -134
-186 316 -142
-188 317 -143
-176 342 -134
-177 343 -135
-177 347 -135
-178 348 -136
-178 358 -136
-179 359 -137
-188 365 -143
-186 366 -142
-179 376 -137
-181 377 -138
-181 380 -139
-183 381 -140
-188 388 -143
-189 389 -144
-183 391 -140
-184 392 -140
-183 404 -140
-184 405 -140
-184 411 -140
-185 412 -142
-190 438 -145
-191 439 -146
-185 440 -142
-186 441 -142
-186 453 -142
-188 454 -143
-188 471 -143
-189 472 -144
-189 479 -144
-190 480 -145
-193 481 -147
-191 496 -146
-191 497 -146
-176 210 -129
-176 211 -129
-177 217 -129
-179 226 -130
-179 242 -130
-180 243 -131
-175 244 -127
-176 245 -129
-180 252 -131
-181 253 -132
-181 256 -132
-182 257 -133
-176 260 -129
-177 261 -129
-177 276 -129
-179 277 -130
-184 278 -134
-179 280 -130
-179 281 -130
-184 282 -135
-184 293 -135
-186 294 -136
-186 295 -136
-187 296 -136
-187 302 -136
-188 303 -137
-188 312 -137
-189 313 -138
-177 323 -129
-179 324 -130
-179 334 -130
-180 335 -131
-189 346 -138
-191 347 -139
-180 351 -131
-181 352 -132
-181 364 -132
-182 365 -133
-191 377 -139
-189 378 -138
-182 381 -133
-184 382 -134
-184 383 -134
-184 384 -135
-189 386 -138
-186 387 -136
-187 388 -136
-192 389 -140
-192 391 -140
-193 392 -141
-186 405 -136
-187 406 -136
-187 416 -136
-188 417 -137
-188 440 -137
-189 441 -138
-193 444 -141
-194 445 -142
-189 461 -138
-191 462 -139
-191 472 -139
-192 473 -140
-192 482 -140
-193 483 -141
-196 484 -143
-194 499 -142
-194 500 -142
-179 214 -125
-179 215 -125
-180 217 -125
-182 226 -126
-178 244 -124
-179 245 -125
-182 253 -127
-184 254 -128
-184 257 -128
-185 258 -129
-179 267 -125
-180 268 -125
-185 277 -129
-187 278 -130
-187 281 -130
-187 282 -130
-187 294 -130
-189 295 -132
-189 297 -132
-190 298 -132
-190 302 -132
-191 303 -133
-191 312 -133
-192 313 -134
-180 322 -125
-182 323 -126
-182 345 -126
-182 346 -127
-182 351 -127
-184 352 -128
-184 358 -128
-185 359 -129
-185 383 -129
-187 384 -130
-187 385 -130
-187 386 -130
-192 388 -134
-187 389 -130
-190 390 -132
-189 405 -132
-190 406 -132
-190 418 -132
-191 419 -133
-195 421 -136
-196 422 -137
-191 443 -133
-192 444 -134
-196 446 -137
-197 447 -137
-192 462 -134
-194 463 -135
-194 470 -135
-195 471 -136
-195 483 -136
-196 484 -137
-199 485 -138
-197 501 -137
-197 502 -137
-182 218 -121
-180 219 -120
-184 232 -122
-184 247 -122
-185 248 -123
-180 253 -120
-182 254 -121
-187 255 -124
-187 257 -124
-188 258 -125
-183 276 -121
-184 277 -122
-189 281 -126
-190 282 -126
-190 286 -126
-192 287 -127
-192 298 -127
-193 299 -128
-193 310 -128
-194 311 -129
-194 312 -129
-195 313 -130
-183 324 -121
-184 325 -122
-184 337 -122
-185 338 -123
-185 352 -123
-187 353 -124
-187 364 -124
-188 365 -125
-188 377 -125
-189 378 -126
-195 380 -130
-197 381 -131
-189 384 -126
-190 385 -126
-190 393 -126
-193 394 -128
-198 395 -131
-192 403 -127
-193 404 -128
-193 419 -128
-194 420 -129
-198 428 -131
-199 429 -132
-199 452 -132
-200 453 -133
-194 456 -129
-195 457 -130
-195 461 -130
-197 462 -131
-197 472 -131
-198 473 -131
-198 483 -131
-199 484 -132
-202 485 -134
-200 502 -133
-200 503 -133
-185 215 -117
-185 216 -117
-185 224 -117
-187 227 -118
-187 249 -118
-188 250 -119
-183 253 -116
-185 254 -117
-188 258 -119
-190 259 -120
-190 266 -120
-190 267 -120
-190 276 -120
-192 277 -121
-192 281 -121
-193 282 -122
-193 284 -122
-195 285 -123
-185 294 -117
-185 295 -117
-195 296 -123
-196 297 -124
-196 310 -124
-197 311 -125
-197 313 -125
-198 314 -125
-185 323 -117
-187 324 -118
-187 344 -118
-188 345 -119
-188 356 -119
-190 357 -120
-190 366 -120
-190 367 -120
-190 382 -120
-192 383 -121
-192 384 -121
-193 385 -122
-198 389 -125
-200 390 -126
-193 401 -122
-195 402 -123
-200 405 -126
-201 406 -127
-195 415 -123
-196 416 -124
-196 421 -124
-197 422 -125
-201 430 -127
-202 431 -128
-197 452 -125
-198 453 -125
-202 456 -128
-203 457 -128
-198 462 -125
-200 463 -126
-200 473 -126
-201 474 -127
-201 488 -127
-202 489 -128
-205 490 -129
-203 494 -128
-203 495 -128
-187 214 -112
-187 215 -112
-188 224 -113
-190 234 -114
-185 253 -111
-187 254 -112
-191 262 -115
-192 263 -116
-192 266 -116
-193 267 -116
-193 277 -116
-195 278 -117
-195 287 -117
-196 288 -118
-187 296 -112
-188 297 -113
-196 298 -118
-197 299 -119
-197 300 -119
-198 301 -119
-198 302 -119
-200 303 -120
-200 316 -120
-201 317 -121
-188 324 -113
-190 325 -114
-190 347 -114
-191 348 -115
-191 357 -115
-192 358 -116
-192 365 -116
-193 366 -116
-193 383 -116
-195 384 -117
-201 388 -121
-196 389 -118
-196 390 -118
-203 404 -122
-203 405 -122
-196 414 -118
-197 415 -119
-197 416 -119
-198 417 -119
-198 426 -119
-200 427 -120
-203 434 -122
-205 435 -123
-200 453 -120
-201 454 -121
-201 467 -121
-203 468 -122
-203 472 -122
-203 473 -122
-206 474 -124
-205 490 -123
-205 491 -123
-190 214 -108
-190 215 -108
-190 225 -109
-188 228 -107
-187 229 -107
-190 231 -109
-192 232 -110
-192 247 -110
-193 248 -110
-187 255 -107
-188 256 -107
-188 258 -107
-190 259 -108
-193 265 -110
-195 266 -111
-195 268 -111
-196 269 -112
-196 278 -112
-197 279 -113
-197 288 -113
-198 289 -113
-190 297 -109
-190 298 -109
-201 299 -115
-201 311 -115
-203 312 -116
-203 323 -116
-203 324 -116
-190 325 -109
-192 326 -110
-192 348 -110
-193 349 -110
-203 355 -116
-203 356 -116
-195 357 -111
-196 358 -112
-195 371 -111
-196 372 -112
-196 383 -112
-197 384 -113
-203 390 -116
-198 391 -113
-198 392 -113
-198 412 -113
-200 413 -114
-205 415 -117
-206 416 -118
-200 423 -114
-201 424 -115
-203 432 -116
-203 433 -116
-203 458 -116
-203 459 -116
-203 465 -116
-205 466 -117
-205 479 -117
-206 480 -118
-209 481 -119
-208 494 -119
-208 495 -119
-192 215 -104
-192 216 -104
-193 225 -105
-195 232 -105
-195 246 -105
-195 247 -106
-195 271 -106
-197 272 -107
-197 274 -107
-198 275 -107
-198 278 -107
-200 279 -108
-200 288 -108
-201 289 -109
-190 295 -103
-192 296 -104
-201 301 -109
-202 302 -110
-202 303 -110
-203 304 -110
-203 311 -110
-195 312 -105
-193 313 -105
-193 340 -105
-195 341 -105
-195 348 -105
-195 349 -106
-195 358 -106
-197 359 -107
-205 364 -111
-206 365 -112
-197 373 -107
-198 374 -107
-198 375 -107
-200 376 -108
-206 391 -112
-208 392 -113
-200 400 -108
-201 401 -109
-201 416 -109
-203 417 -110
-209 418 -113
-202 424 -110
-203 425 -110
-203 443 -110
-205 444 -111
-209 445 -113
-210 446 -114
-205 458 -111
-206 459 -112
-206 469 -112
-208 470 -113
-208 482 -113
-209 483 -113
-211 484 -115
-210 493 -114
-210 494 -114
-194 216 -100
-194 217 -100
-194 223 -100
-194 224 -100
-194 225 -100
-192 226 -98
-195 238 -100
-197 239 -101
-197 241 -101
-198 242 -102
-192 255 -98
-192 256 -99
-197 269 -101
-198 270 -102
-200 275 -103
-200 276 -103
-200 278 -103
-202 279 -104
-202 287 -104
-203 288 -104
-203 302 -104
-205 303 -105
-205 304 -105
-206 305 -106
-206 311 -106
-208 312 -107
-194 324 -100
-195 325 -100
-195 335 -100
-197 336 -101
-197 352 -101
-198 353 -102
-198 361 -102
-200 362 -103
-208 366 -107
-208 367 -107
-200 373 -103
-200 374 -103
-200 378 -103
-202 379 -104
-208 401 -107
-210 402 -108
-202 415 -104
-203 416 -104
-203 417 -104
-205 418 -105
-210 421 -108
-211 422 -108
-205 428 -105
-206 429 -106
-206 444 -106
-208 445 -107
-211 450 -108
-213 451 -109
-208 461 -107
-208 462 -107
-208 468 -107
-211 469 -108
-210 485 -108
-211 486 -108
-214 487 -110
-213 497 -109
-213 498 -109
-196 217 -95
-196 218 -95
-197 226 -96
-195 228 -95
-194 229 -94
-197 234 -96
-199 235 -97
-199 248 -97
-200 249 -97
-194 255 -94
-195 256 -95
-200 268 -97
-202 269 -98
-202 273 -98
-203 274 -98
-203 284 -98
-204 285 -99
-204 292 -99
-205 293 -100
-195 296 -95
-196 297 -95
-205 302 -100
-207 303 -101
-207 310 -101
-208 311 -101
-208 312 -101
-210 313 -102
-196 325 -95
-197 326 -96
-197 342 -96
-199 343 -97
-199 352 -97
-200 353 -97
-200 356 -97
-203 357 -98
-208 358 -101
-208 359 -101
-210 360 -102
-202 373 -98
-203 374 -98
-203 378 -98
-204 379 -99
-210 389 -102
-211 390 -102
-211 412 -102
-213 413 -103
-204 416 -99
-205 417 -100
-205 418 -100
-207 419 -101
-213 422 -103
-213 423 -104
-207 429 -101
-208 430 -101
-208 446 -101
-210 447 -102
-213 452 -104
-215 453 -105
-210 462 -102
-211 463 -102
-211 477 -102
-213 478 -103
-213 484 -103
-213 485 -104
-216 486 -105
-215 494 -105
-215 495 -105
-198 218 -91
-198 219 -91
-197 227 -90
-196 228 -90
-199 239 -91
-201 240 -92
-201 249 -92
-202 250 -93
-196 255 -90
-197 256 -90
-202 262 -93
-204 263 -94
-204 274 -94
-205 275 -94
-205 285 -94
-207 286 -95
-207 293 -95
-208 294 -95
-197 296 -90
-198 297 -91
-208 302 -95
-209 303 -96
-209 310 -96
-210 311 -96
-210 312 -96
-212 313 -97
-198 326 -91
-199 327 -91
-199 343 -91
-201 344 -92
-201 351 -92
-202 352 -93
-202 356 -93
-204 357 -94
-204 373 -94
-205 374 -94
-212 384 -97
-213 385 -98
-205 388 -94
-207 389 -95
-213 413 -98
-215 414 -99
-207 416 -95
-208 417 -95
-212 422 -97
-213 423 -98
-209 431 -96
-210 432 -96
-210 452 -96
-212 453 -97
-216 459 -99
-218 460 -100
-212 466 -97
-213 467 -98
-213 475 -98
-216 476 -99
-218 489 -100
-216 493 -99
-216 494 -99
-199 216 -86
-199 217 -86
-200 219 -87
-201 226 -87
-201 239 -87
-203 240 -88
-203 241 -88
-204 242 -88
-198 252 -85
-199 253 -86
-204 265 -88
-206 266 -89
-206 272 -89
-207 273 -89
-207 286 -89
-209 287 -90
-209 293 -90
-210 294 -91
-210 302 -91
-211 303 -91
-211 304 -91
-212 305 -92
-199 310 -86
-200 311 -87
-212 312 -92
-214 313 -93
-200 335 -87
-201 336 -87
-201 343 -87
-203 344 -88
-206 356 -89
-206 357 -89
-204 360 -88
-206 361 -89
-212 369 -92
-214 370 -93
-206 375 -89
-207 376 -89
-214 382 -93
-215 383 -93
-207 400 -89
-209 401 -90
-209 415 -90
-211 416 -91
-217 417 -94
-210 423 -91
-211 424 -91
-217 430 -94
-218 431 -94
-211 435 -91
-212 436 -92
-212 450 -92
-214 451 -93
-214 468 -93
-215 469 -93
-215 481 -93
-217 482 -94
-220 483 -95
-218 495 -94
-218 496 -94
-200 221 -81
-200 222 -81
-203 231 -82
-203 239 -82
-205 240 -83
-205 252 -83
-206 253 -84
-200 255 -81
-200 256 -81
-206 268 -84
-208 269 -84
-208 273 -84
-209 274 -85
-209 291 -85
-211 292 -86
-211 293 -86
-212 294 -86
-212 302 -86
-213 303 -87
-213 311 -87
-203 312 -82
-202 313 -82
-202 341 -82
-203 342 -82
-203 344 -82
-205 345 -83
-205 357 -83
-206 358 -84
-206 363 -84
-208 364 -84
-214 375 -87
-216 376 -88
-208 378 -84
-209 379 -85
-216 382 -88
-217 383 -88
-209 384 -85
-211 385 -86
-211 415 -86
-212 416 -86
-217 417 -88
-219 418 -89
-212 422 -86
-213 423 -87
-219 436 -89
-220 437 -89
-213 441 -87
-214 442 -87
-214 455 -87
-216 456 -88
-216 469 -88
-217 470 -88
-217 481 -88
-219 482 -89
-222 483 -90
-220 493 -89
-220 494 -89
-202 217 -77
-202 218 -77
-204 221 -78
-201 228 -77
-199 229 -76
-204 230 -78
-205 231 -78
-205 240 -78
-207 241 -79
-207 252 -79
-208 253 -79
-199 255 -76
-201 256 -77
-208 259 -79
-210 260 -80
-201 271 -77
-202 272 -77
-210 273 -80
-211 274 -80
-211 292 -80
-213 293 -81
-213 294 -81
-213 295 -81
-213 303 -81
-215 304 -82
-215 311 -82
-216 312 -82
-202 313 -77
-204 314 -78
-216 315 -82
-218 316 -83
-204 326 -78
-205 327 -78
-218 346 -83
-208 347 -79
-208 348 -79
-218 349 -83
-207 351 -79
-208 352 -79
-208 363 -79
-210 364 -80
-210 381 -80
-211 382 -80
-218 383 -83
-219 384 -83
-211 388 -80
-213 389 -81
-219 391 -83
-221 392 -84
-213 415 -81
-213 416 -81
-213 431 -81
-215 432 -82
-216 440 -82
-218 441 -83
-216 455 -82
-218 456 -83
-218 471 -83
-219 472 -83
-219 482 -83
-221 483 -84
-224 484 -85
-222 507 -84
-222 508 -84
-203 201 -72
-203 202 -72
-204 218 -72
-206 221 -73
-206 230 -73
-207 231 -73
-201 232 -71
-203 233 -72
-207 240 -73
-209 241 -74
-209 250 -74
-210 251 -74
-210 270 -74
-211 271 -75
-211 274 -75
-212 275 -75
-203 277 -72
-204 278 -72
-212 290 -75
-214 291 -76
-214 295 -76
-215 296 -76
-215 303 -76
-217 304 -77
-217 311 -77
-218 312 -77
-204 313 -72
-206 314 -73
-206 339 -73
-207 340 -73
-207 351 -73
-209 352 -74
-209 355 -74
-210 356 -74
-218 372 -77
-211 373 -75
-211 374 -75
-211 382 -75
-214 383 -76
-221 384 -78
-212 400 -75
-214 401 -76
-214 415 -76
-215 416 -76
-221 421 -78
-223 422 -79
-215 431 -76
-217 432 -77
-223 442 -79
-224 443 -79
-217 447 -77
-218 448 -77
-218 459 -77
-220 460 -78
-220 477 -78
-221 478 -78
-221 483 -78
-223 484 -79
-226 485 -80
-224 502 -79
-224 503 -79
-205 215 -68
-205 216 -68
-207 222 -68
-208 230 -69
-208 243 -69
-210 244 -69
-210 250 -69
-211 251 -70
-211 268 -70
-213 269 -70
-213 272 -70
-214 273 -71
-214 290 -71
-216 291 -71
-205 294 -68
-205 295 -68
-216 298 -71
-217 299 -72
-217 301 -72
-219 302 -72
-219 311 -72
-220 312 -73
-205 323 -68
-207 324 -68
-207 341 -68
-208 342 -69
-208 348 -69
-210 349 -69
-210 357 -69
-211 358 -70
-220 360 -73
-222 361 -73
-211 374 -70
-213 375 -70
-222 383 -73
-214 384 -71
-214 385 -71
-214 400 -71
-216 401 -71
-216 415 -71
-217 416 -72
-223 420 -73
-224 421 -74
-217 435 -72
-219 436 -72
-224 450 -74
-225 451 -74
-219 453 -72
-220 454 -73
-220 457 -73
-222 458 -73
-222 476 -73
-223 477 -73
-223 488 -73
-224 489 -74
-227 490 -75
-225 497 -74
-225 498 -74
-207 217 -63
-207 218 -63
-209 224 -64
-206 228 -63
-204 229 -62
-209 237 -64
-210 238 -64
-210 244 -64
-212 245 -65
-206 255 -63
-207 256 -63
-213 269 -65
-216 271 -66
-216 289 -66
-217 290 -66
-206 294 -63
-207 295 -63
-217 297 -66
-218 298 -67
-218 303 -67
-220 304 -67
-220 312 -67
-221 313 -68
-207 314 -63
-209 315 -64
-209 344 -64
-210 345 -64
-210 348 -64
-212 349 -65
-212 358 -65
-213 359 -65
-221 369 -68
-223 370 -68
-213 383 -65
-215 384 -66
-215 388 -66
-216 389 -66
-223 390 -68
-224 391 -69
-216 415 -66
-217 416 -66
-217 421 -66
-218 422 -67
-224 427 -69
-226 428 -69
-218 436 -67
-220 437 -67
-220 451 -67
-221 452 -68
-226 455 -69
-227 456 -69
-221 464 -68
-223 465 -68
-223 479 -68
-224 480 -69
-227 486 -69
-226 493 -69
-226 494 -69
-207 213 -58
-207 214 -58
-208 219 -59
-210 223 -59
-210 232 -59
-211 233 -59
-211 241 -59
-213 242 -60
-213 259 -60
-214 260 -60
-205 269 -58
-208 270 -59
-217 272 -61
-217 288 -61
-219 289 -62
-219 297 -62
-220 298 -62
-220 303 -62
-222 304 -62
-222 311 -62
-210 312 -59
-208 313 -59
-208 325 -59
-210 326 -59
-210 341 -59
-211 342 -59
-211 347 -59
-213 348 -60
-213 365 -60
-214 366 -60
-214 383 -60
-216 384 -61
-223 385 -63
-225 386 -63
-217 390 -61
-219 391 -62
-217 413 -61
-219 414 -62
-219 421 -62
-220 422 -62
-226 436 -64
-222 437 -62
-222 438 -62
-222 454 -62
-223 455 -63
-223 463 -63
-225 464 -63
-225 480 -63
-226 481 -64
-228 482 -64
-228 494 -64
-228 495 -64
-209 211 -54
-209 212 -54
-210 218 -54
-211 225 -54
-207 239 -53
-209 240 -54
-212 247 -55
-214 248 -55
-214 258 -55
-215 259 -56
-215 271 -56
-217 272 -56
-217 274 -56
-218 275 -56
-218 293 -56
-220 294 -57
-220 302 -57
-221 303 -57
-221 306 -57
-223 307 -58
-211 311 -54
-212 312 -55
-210 324 -54
-211 325 -54
-211 342 -54
-212 343 -55
-212 353 -55
-214 354 -55
-214 371 -55
-215 372 -56
-215 383 -56
-217 384 -56
-224 388 -58
-226 389 -58
-226 390 -58
-218 391 -56
-218 392 -56
-218 414 -56
-220 415 -57
-220 425 -57
-221 426 -57
-221 439 -57
-223 440 -58
-229 441 -59
-223 453 -58
-224 454 -58
-224 467 -58
-226 468 -58
-226 487 -58
-227 488 -59
-230 489 -59
-229 496 -59
-229 497 -59
-211 218 -49
-211 219 -49
-210 226 -49
-208 227 -49
-213 232 -50
-214 233 -50
-214 246 -50
-216 247 -50
-208 255 -49
-210 256 -49
-216 258 -50
-217 259 -51
-217 276 -51
-218 277 -51
-218 279 -51
-219 280 -51
-219 281 -51
-221 282 -52
-210 294 -49
-211 295 -49
-221 298 -52
-222 299 -52
-222 301 -52
-224 302 -53
-224 322 -53
-225 323 -53
-211 325 -49
-213 326 -50
-213 346 -50
-214 347 -50
-214 359 -50
-216 360 -50
-216 364 -50
-217 365 -51
-225 371 -53
-224 372 -53
-224 374 -53
-225 375 -53
-217 380 -51
-218 381 -51
-225 382 -53
-227 383 -53
-218 385 -51
-219 386 -51
-227 401 -53
-228 402 -53
-219 414 -51
-221 415 -52
-221 422 -52
-222 423 -52
-222 447 -52
-224 448 -53
-228 452 -53
-230 453 -54
-224 459 -53
-225 460 -53
-225 469 -53
-228 470 -53
-227 485 -53
-228 486 -53
-231 487 -54
-230 495 -54
-230 496 -54
-211 208 -44
-211 209 -44
-212 220 -45
-214 232 -45
-214 240 -45
-215 241 -45
-209 243 -44
-211 244 -44
-215 254 -45
-217 255 -46
-217 261 -46
-218 262 -46
-218 275 -46
-220 276 -46
-220 277 -46
-221 278 -47
-221 294 -47
-223 295 -47
-223 301 -47
-223 302 -47
-211 303 -44
-212 304 -45
-223 312 -47
-226 314 -48
-212 326 -45
-214 327 -45
-217 347 -46
-217 348 -46
-215 353 -45
-217 354 -46
-217 365 -46
-218 366 -46
-218 373 -46
-220 374 -46
-225 375 -48
-226 376 -48
-226 385 -48
-228 386 -48
-228 391 -48
-229 392 -48
-220 413 -46
-221 414 -47
-221 415 -47
-223 416 -47
-223 423 -47
-223 424 -47
-223 444 -47
-225 445 -48
-229 451 -48
-231 452 -49
-225 460 -48
-226 461 -48
-226 475 -48
-228 476 -48
-231 489 -49
-229 504 -48
-229 505 -48
-212 215 -40
-212 216 -40
-213 221 -40
-215 235 -40
-215 239 -40
-216 240 -40
-210 249 -39
-212 250 -40
-216 255 -40
-218 256 -41
-218 257 -41
-219 258 -41
-219 277 -41
-221 278 -41
-221 281 -41
-222 282 -42
-222 285 -42
-224 286 -42
-224 297 -42
-224 298 -42
-224 304 -42
-226 305 -43
-226 312 -43
-227 313 -43
-212 314 -40
-213 315 -40
-213 334 -40
-215 335 -40
-215 346 -40
-219 347 -41
-226 348 -43
-216 357 -40
-219 358 -41
-227 359 -43
-218 364 -41
-219 365 -41
-219 384 -41
-221 385 -41
-227 390 -43
-229 391 -43
-221 414 -41
-222 415 -42
-222 417 -42
-224 418 -42
-229 422 -43
-230 423 -43
-224 436 -42
-224 437 -42
-224 447 -42
-226 448 -43
-226 463 -43
-227 464 -43
-227 475 -43
-229 476 -43
-232 477 -44
-230 494 -43
-230 495 -43
-213 214 -35
-213 215 -35
-214 222 -35
-216 235 -36
-216 241 -36
-217 242 -36
-217 253 -36
-218 254 -36
-218 265 -36
-219 266 -36
-219 275 -36
-213 276 -35
-213 277 -35
-221 281 -36
-224 283 -37
-224 302 -37
-225 303 -37
-225 311 -37
-227 312 -37
-213 313 -35
-214 314 -35
-214 326 -35
-216 327 -36
-216 349 -36
-217 350 -36
-217 359 -36
-218 360 -36
-227 361 -37
-228 362 -38
-218 369 -36
-219 370 -36
-219 382 -36
-221 383 -36
-228 392 -38
-230 393 -38
-221 414 -36
-222 415 -37
-222 416 -37
-224 417 -37
-230 422 -38
